ply
format ascii 1.0
element vertex 130
property float x
property float y
property float z
end_header
0.123627 -2.750097 10.442673
-2.130911 -0.495560 10.442673
2.474509 -0.495560 10.483013
0.123627 1.855323 10.483013
-2.130911 -2.582715 10.852481
2.474509 -2.567462 10.889824
-2.130911 1.680788 10.889824
2.474509 1.664883 10.926896
0.123627 -4.669871 11.704960
-4.050684 -0.495560 11.704960
4.381203 -0.495560 11.788225
0.123627 3.762017 11.788225
-2.130911 -4.359960 12.021052
-4.050684 -2.105423 12.021052
2.474509 -4.331719 12.049856
-4.050684 1.183099 12.049856
4.381203 -2.073939 12.098135
-2.130911 3.445925 12.098135
4.381203 1.150269 12.126377
2.474509 3.417120 12.126377
-4.050684 -3.476246 12.922394
4.381203 -3.417953 12.981850
-4.050684 2.544583 12.981850
4.381203 2.485127 13.040143
0.123627 -5.975084 13.611654
-5.355897 -0.495560 13.611654
5.643490 -0.495560 13.707999
0.123627 5.024304 13.707999
-2.130911 -5.568271 13.786189
2.474509 -5.531200 13.802094
-2.130911 4.614497 13.875381
2.474509 4.577152 13.890634
-4.050684 -4.408239 14.283878
-5.355897 -2.141388 14.283878
4.381203 -4.331719 14.316708
-5.355897 1.183099 14.316708
5.643490 -2.073939 14.352673
-4.050684 3.445925 14.352673
5.643490 1.114304 14.384157
4.381203 3.368841 14.384157
-5.355897 1.855323 15.962536
-4.050684 3.762017 15.962536
-2.130911 5.024304 15.962536
0.123627 5.466976 15.962536
2.474509 4.983964 15.962536
4.381203 3.678752 15.962536
5.643490 1.758978 15.962536
6.086162 -0.495560 15.962536
6.086162 -0.495560 15.962536
-5.355897 -2.846442 15.962536
-5.355897 -2.846442 15.962536
0.123627 -6.458095 15.962536
2.474509 -5.975084 15.962536
4.381203 -4.669871 15.962536
5.643490 -2.750097 15.962536
-5.355897 -2.846442 15.962536
5.643490 -2.105423 17.540915
4.381203 -4.359960 17.540915
5.643490 1.082819 17.572399
-4.050684 -4.437044 17.572399
4.381203 3.340600 17.608365
-5.355897 -2.174218 17.608365
-4.050684 3.417120 17.641195
-5.355897 1.150269 17.641195
2.474509 -5.568271 18.034439
-2.130911 -5.605616 18.049692
2.474509 4.540081 18.122979
-2.130911 4.577152 18.138884
5.643490 -0.495560 18.217074
0.123627 -6.015423 18.217074
0.123627 4.983964 18.313418
-5.355897 -0.495560 18.313418
4.381203 -3.476246 18.884929
4.381203 2.426834 18.943223
-4.050684 -3.535702 18.943223
-4.050684 2.485127 19.002679
4.381203 -2.141388 19.798696
2.474509 -4.408239 19.798696
4.381203 1.082819 19.826937
-2.130911 -4.437044 19.826937
2.474509 3.340600 19.875216
-4.050684 -2.174218 19.875216
-2.130911 3.368841 19.904020
-4.050684 1.114304 19.904020
4.381203 -0.495560 20.136847
0.123627 -4.753136 20.136847
0.123627 3.678752 20.220113
-4.050684 -0.495560 20.220113
2.474509 -2.656002 20.998176
2.474509 1.576343 21.035248
-2.130911 -2.671907 21.035248
-2.130911 1.591596 21.072592
2.474509 -0.495560 21.442060
0.123627 -2.846442 21.442060
0.123627 1.758978 21.482400
-2.130911 -0.495560 21.482400
0.123627 -0.495560 21.925072
20.872297 -8.416754 22.409371
8.965431 -20.642568 22.409371
20.872297 -8.416754 22.409371
-8.416753 -20.872297 22.409371
-20.642566 -8.965431 22.409371
-8.416753 -20.872297 22.409371
8.965431 -20.642568 22.409371
-22.500000 -0.494506 22.409371
-16.105127 15.720032 22.409371
-0.494505 22.500000 22.409371
-16.105127 15.720032 22.409371
15.720032 16.105127 22.409371
20.642568 8.965430 22.409371
15.720032 16.105127 22.409371
-0.494505 22.500000 22.409371
-22.500000 -0.494506 22.409371
10.436149 -4.208377 38.330797
8.052564 -7.860017 38.330797
4.482716 -10.321284 38.330797
0.247253 -11.250001 38.330797
-4.208376 -10.436149 38.330797
-7.860015 -8.052564 38.330797
-10.321283 -4.482716 38.330797
-11.249999 -0.247253 38.330797
-10.436148 4.208376 38.330797
-8.052563 7.860015 38.330797
-4.482715 10.321283 38.330797
-0.247252 11.249999 38.330797
4.208377 10.436148 38.330797
7.860017 8.052563 38.330797
10.321284 4.482715 38.330797
10.321284 4.482715 38.330797
0.000000 -0.000000 54.252223
