ply
format ascii 1.0
element vertex 1547
property float x
property float y
property float z
end_header
-4.054984 20.501851 10.000000
-5.362000 19.642635 10.000000
-4.940292 21.216390 10.000000
-3.188912 21.303454 10.000000
5.458312 21.216395 10.000000
5.679177 20.452622 10.000000
5.880019 19.642635 10.000000
3.244722 19.685336 10.000000
3.706931 21.303454 10.000000
-5.864548 -4.463891 10.000000
-5.347755 -3.129794 10.000000
-5.347755 -3.129794 10.000000
6.343892 -3.146538 10.000000
6.305217 -1.829185 10.000000
-4.263005 -3.268301 10.000000
-4.263005 -3.268301 10.000000
-4.207201 -1.718966 10.000000
-3.716850 -3.342615 10.000000
-3.716850 -3.342615 10.000000
-3.240916 -4.958899 10.000000
4.781024 -3.268301 10.000000
4.178148 -1.779855 10.000000
5.272294 -1.658079 10.000000
5.272294 -1.658079 10.000000
5.382066 -4.729901 10.000000
4.291590 -4.905375 10.000000
2.920349 -4.483167 10.000000
9.541200 22.500000 10.000000
-9.541200 22.500000 10.000000
9.541200 -8.375970 10.000000
-9.541200 22.500000 10.000000
-5.825873 -3.146538 10.000001
-6.257167 -2.069457 10.000001
7.213377 -2.326279 10.000001
-1.963705 -2.623585 10.000001
-2.021343 -4.225325 10.000001
2.875520 -3.422125 10.000001
2.843497 -2.360999 10.000001
4.587148 18.844763 10.000060
-4.378531 18.281117 10.000588
-2.509924 17.196166 10.000613
3.027943 17.196166 10.000613
-3.277397 18.224495 10.000653
6.074348 18.219582 10.000653
-5.556329 18.219582 10.000655
3.795417 18.224495 10.000655
4.634340 17.662228 10.001277
-3.577088 16.574416 10.001300
4.095108 16.574416 10.001300
-5.106823 17.158640 10.001833
5.624843 17.158640 10.001833
-1.322835 18.780135 10.027219
1.840855 18.780135 10.027219
-4.157894 -0.337927 10.034332
4.675913 -0.337927 10.034332
-5.244050 -0.369858 10.034385
5.762069 -0.369858 10.034385
-3.092247 -0.562196 10.034452
3.610266 -0.562198 10.034452
-7.072387 -3.869139 10.035584
7.590406 -3.869139 10.035584
-5.892699 -5.637457 10.036229
6.410714 -5.637457 10.036229
-2.858557 -5.909117 10.036298
3.376576 -5.909117 10.036298
-4.910178 -6.098498 10.036405
5.428197 -6.098498 10.036405
-3.827665 -6.293597 10.036450
4.345684 -6.293597 10.036450
-4.071982 22.021036 10.042422
4.590001 22.021036 10.042422
-1.959744 20.529104 10.042422
2.477763 20.529104 10.042422
-6.141588 20.394646 10.042423
6.659607 20.394646 10.042423
-6.746354 18.831441 10.042531
7.264373 18.831441 10.042531
-6.349145 17.429499 10.043923
6.867165 17.429499 10.043923
-4.907399 16.082971 10.044658
5.425419 16.082971 10.044658
-6.151223 -1.058036 10.346110
2.892251 -1.380379 10.347335
6.607011 -1.138562 10.689390
-2.443035 -1.449742 10.692269
-6.931017 -2.631216 10.702501
-1.765863 -3.411022 10.709297
-6.517895 -4.817903 10.721330
7.035915 -4.817903 10.721330
-2.249872 -4.902896 10.722121
-2.729057 16.680070 10.844825
3.247076 16.680070 10.844825
-1.850667 17.627279 10.847717
2.368686 17.627279 10.847717
-5.263733 16.606710 10.849004
5.781753 16.606710 10.849004
-6.299018 18.252430 10.853037
6.817038 18.252430 10.853037
-1.675578 19.725155 10.856514
2.193597 19.725155 10.856514
-6.249239 19.670831 10.856973
6.767259 19.670831 10.856973
-5.608640 20.969592 10.861683
6.126660 20.969592 10.861685
-2.389995 21.106838 10.862362
2.908015 21.106838 10.862362
-4.606311 21.777061 10.864985
5.124330 21.777061 10.864985
-3.445469 21.859340 10.865456
3.963488 21.859340 10.865458
-4.653175 -0.514164 11.014876
5.171195 -0.514164 11.014876
-3.264753 -0.798745 11.019968
3.782771 -0.798745 11.019968
7.204733 -2.093607 11.042630
-1.993350 -2.421273 11.048491
2.511370 -2.421273 11.048491
7.426030 -3.211194 11.061520
-6.856798 -3.777370 11.071045
2.424441 -3.883160 11.072939
2.830161 -4.841936 11.089287
-5.729845 -5.461629 11.100172
6.247864 -5.461629 11.100172
-3.022159 -5.637231 11.103311
3.540179 -5.637231 11.103311
4.888442 -6.004904 11.109888
-4.370422 -6.004904 11.109890
-3.926920 16.420083 11.260036
4.444939 16.420083 11.260037
-5.572380 -0.902854 11.346178
3.062128 -1.517546 11.365339
-6.356076 -1.626276 11.368556
6.072134 -0.903062 11.657970
-2.247730 17.213288 11.669837
2.765749 17.213288 11.669837
-2.570158 -1.508289 11.688675
-5.493257 17.208462 11.705730
6.011277 17.208462 11.705730
-1.681531 18.338086 11.715542
2.199550 18.338086 11.715542
-6.756411 -2.605635 11.743175
-6.127087 19.036917 11.758213
6.645107 19.036917 11.758213
-1.937192 -3.332168 11.779298
-5.810784 20.354670 11.806209
6.328803 20.354670 11.806209
-2.042919 20.424285 11.808979
2.560938 20.424285 11.808980
7.130760 -4.205779 11.822217
-6.370959 -4.642954 11.844035
-2.388785 -4.722135 11.848062
-5.037174 21.373815 11.849066
5.555194 21.373815 11.849066
-2.922080 21.492821 11.856670
3.440100 21.492821 11.856670
-3.998998 21.798370 11.868857
4.517017 21.798370 11.868857
-4.180730 -0.529473 11.927782
4.698750 -0.529473 11.927782
6.830458 -1.584375 12.004805
-3.261063 16.622128 12.042159
3.779082 16.622128 12.042159
-2.097718 -2.359382 12.061165
2.615737 -2.359382 12.061165
7.257536 -2.566873 12.075655
-6.743389 -3.652011 12.153448
2.532701 -3.752842 12.160840
6.558867 -4.955169 12.247584
3.442927 -1.065634 12.250655
3.230989 -5.080752 12.256784
-5.957302 -1.149386 12.258547
-5.666901 -5.257390 12.269660
-3.080459 -5.424765 12.281926
5.333863 -5.675337 12.300286
-4.368348 -5.775209 12.307606
-5.098508 -0.571153 12.456689
-4.433713 16.636712 12.470785
4.951732 16.636712 12.470785
-3.310334 -0.726620 12.474243
-6.585090 -1.961003 12.612883
-5.779187 17.817303 12.615340
6.297206 17.817303 12.615340
4.007687 -5.617655 12.678847
5.620253 -0.529934 12.680636
-1.628384 19.055972 12.695480
2.146403 19.055972 12.695482
-2.570761 -1.354353 12.782448
7.265880 -3.566204 12.791628
-2.010435 -3.667050 12.803015
-5.997592 19.762186 12.811712
6.515612 19.762186 12.811712
-2.244177 17.264239 12.816570
2.762196 17.264239 12.816570
4.246057 -0.454664 12.886624
-6.360504 -4.502512 12.896171
-2.047720 20.447930 12.900201
2.565739 20.447930 12.900201
6.496340 -1.030519 12.959971
-5.441986 20.945726 12.966824
5.960006 20.945726 12.966824
-6.808772 -2.995900 12.983026
2.456024 -3.172040 13.004796
2.796750 -1.750189 13.051510
-2.929096 21.500694 13.054435
3.447116 21.500694 13.054435
7.125591 -1.895048 13.069530
-4.525442 21.677352 13.073575
5.043462 21.677352 13.073576
-4.178515 -0.327179 13.084379
3.771625 16.612046 13.090962
-3.253607 16.612046 13.090965
-2.071471 -2.210309 13.109727
6.888321 -4.478391 13.164171
2.907468 -4.557302 13.173923
-2.389449 -4.557302 13.173924
-5.258854 -5.391077 13.276668
5.776874 -5.391077 13.276671
-3.483240 -5.562782 13.297888
-5.565881 -0.645895 13.345852
-5.425852 17.256297 13.364829
5.943871 17.256297 13.364829
3.418231 -0.878301 13.372999
-1.680198 18.353485 13.425117
2.198218 18.353485 13.425117
-6.345478 -1.363023 13.429316
-4.414870 16.554909 13.525816
4.932889 16.554914 13.525816
5.160602 -0.270329 13.548357
6.515092 18.406665 13.552574
-5.997072 18.406665 13.552576
-3.299014 -0.544818 13.576596
7.351340 -2.913625 13.608341
-1.914455 -3.091573 13.629127
3.579044 -5.288245 13.700251
-6.634608 -3.971173 13.730224
4.887088 -5.643387 13.744681
-6.771083 -2.319814 13.757718
-1.761676 19.729337 13.781540
2.279696 19.729337 13.781540
-2.269178 17.097139 13.830614
2.787198 17.097139 13.830614
6.064016 -0.564322 13.875377
-4.369118 -5.615923 13.921588
-2.568543 -1.168366 13.928147
6.834188 -1.275214 13.937264
-5.774445 20.355559 13.945809
6.292459 20.355559 13.945809
2.601280 -2.054847 14.005011
-2.448697 21.007713 14.116551
2.966717 21.007713 14.116552
2.518587 -3.456596 14.125045
-3.253926 16.346610 14.141822
3.771945 16.346610 14.141822
7.119705 -3.860585 14.159625
-2.150741 -3.920247 14.164843
-5.015616 21.346464 14.193662
5.533635 21.346464 14.193662
2.907931 -4.375932 14.204249
-6.043518 -4.666093 14.229406
-4.156508 -0.150668 14.230302
4.231086 -0.241174 14.237077
-2.702069 -4.792427 14.240456
6.186128 -4.970115 14.255927
-5.922941 -0.810463 14.279617
-3.454257 21.705179 14.295408
3.972277 21.705179 14.295408
3.093047 -1.097392 14.301102
-2.101142 -1.976740 14.366187
7.212489 -2.183740 14.380852
-1.677914 18.837567 14.386566
2.195933 18.837567 14.386566
-6.698293 -3.266484 14.459915
-5.989719 18.874347 14.472415
6.507733 18.874347 14.472416
-5.315976 16.948593 14.505473
5.833996 16.948593 14.505473
3.999776 -5.277923 14.608846
5.089092 -0.070271 14.737441
-5.021133 -0.184784 14.745400
-3.271650 -0.338510 14.756084
-4.358931 16.129201 14.800772
4.876951 16.129201 14.800772
-6.460037 -1.558865 14.839920
-2.086330 20.188782 14.848580
2.604350 20.188782 14.848580
-1.990201 17.255841 14.920682
2.508221 17.255841 14.920682
2.503739 -2.785365 14.922999
7.134760 -3.145445 14.946845
-2.045576 -3.245156 14.953776
-5.371110 20.672614 15.008041
5.889130 20.672614 15.008041
-6.243815 -4.070958 15.009602
-5.178912 -4.969438 15.071653
-3.475940 -5.138477 15.083404
5.275626 -5.145997 15.083924
-2.939953 21.210062 15.198689
3.457972 21.210062 15.198689
-4.484515 21.381630 15.250951
5.002534 21.381630 15.250951
-5.765609 17.866792 15.287123
6.283629 17.866792 15.287123
-3.312400 15.879410 15.335660
3.830420 15.879410 15.335660
-1.722020 18.474282 15.359697
2.240038 18.474282 15.359697
-4.060679 0.072937 15.396453
4.148296 -0.015936 15.403213
5.892836 -0.268310 15.422415
-5.764794 -0.574941 15.445614
-2.560245 -0.856699 15.467050
3.078264 -0.856699 15.467050
6.613775 -0.960690 15.474589
7.011843 -1.922976 15.545814
-2.032246 -2.172968 15.564830
-6.543032 -2.457117 15.584960
-5.747756 19.143317 15.636487
6.265776 19.143317 15.636487
2.728796 -3.535733 15.664289
6.655072 -3.902457 15.691444
-5.209267 16.489938 15.694129
5.727282 16.489938 15.694129
-2.436102 -3.979444 15.697300
3.594507 -4.722155 15.753308
-4.283403 -5.065579 15.779432
-2.104258 19.795447 15.848114
2.622278 19.795447 15.848114
-5.233521 20.268464 16.021350
5.751540 20.268464 16.021350
4.943832 0.212839 16.139506
-4.861518 0.100281 16.149672
-3.857946 15.468884 16.161325
4.375965 15.468884 16.161325
-3.172501 -0.050818 16.163323
-2.920489 20.792375 16.217711
3.438508 20.792375 16.217711
-2.404203 16.184051 16.221490
2.922223 16.184051 16.221490
-1.826102 18.896485 16.267916
2.344121 18.896485 16.267916
-6.216003 -1.249973 16.270101
-4.391081 20.960403 16.277920
4.909101 20.960403 16.277920
2.662022 -1.553548 16.297521
-4.793150 15.779872 16.347658
5.311170 15.779872 16.347658
6.879628 -2.808234 16.405614
-2.091000 -2.906243 16.414469
-6.230272 -3.296081 16.448143
-5.396886 -4.367647 16.543395
5.914905 -4.367647 16.543395
-1.786755 17.292317 16.557174
2.304774 17.292317 16.557174
-3.068026 -4.530344 16.558087
4.750626 -4.870985 16.588864
-5.589806 17.325480 16.708640
6.107825 17.325480 16.708640
-3.914796 0.378522 16.891164
4.015640 0.290910 16.900608
5.702100 0.042124 16.927424
-5.550757 -0.260111 16.959816
-2.868812 15.446471 16.971715
3.386830 15.446471 16.971715
-2.513368 -0.537868 16.989759
3.031388 -0.537867 16.989759
-5.546673 18.620928 17.035704
6.064693 18.620928 17.035709
6.608425 -1.086794 17.047274
-4.333866 15.186882 17.068013
4.851880 15.186882 17.068013
-2.065976 -1.834654 17.126043
-6.272678 -2.114268 17.153983
6.790698 -2.114270 17.153983
2.568820 -2.283668 17.172238
-2.026318 16.386591 17.178065
2.544337 16.386591 17.178065
-2.031409 19.288319 17.216936
2.549428 19.288319 17.216936
6.415127 -3.537924 17.302293
-2.454357 -3.613816 17.310471
2.972376 -3.613814 17.310471
-5.359423 16.389826 17.379879
5.877442 16.389826 17.379879
-5.048062 19.758489 17.384989
5.566081 19.758489 17.384989
3.934719 -4.580525 17.413935
-4.568450 -4.587869 17.414726
-1.640394 17.685456 17.539356
2.158412 17.685456 17.539356
-2.823131 20.290136 17.552428
3.341150 20.290136 17.552428
4.800838 0.504594 17.584678
-4.707779 0.393088 17.598476
-4.240467 20.457045 17.613281
4.758486 20.457040 17.613281
-3.065303 0.243399 17.617002
-5.547213 17.679870 17.651451
6.065233 17.679870 17.651451
-5.989547 -0.944132 17.761876
2.670007 -1.244872 17.799098
-3.327224 14.831166 17.803614
3.845243 14.831166 17.803614
-2.369715 15.534429 17.870794
2.887735 15.534429 17.870794
-2.118808 -2.583508 17.957692
-5.252895 18.959125 17.981082
5.770915 18.959125 17.981082
-6.002849 -2.969288 18.003352
-5.054909 15.491714 18.072044
5.572929 15.491714 18.072044
-1.694519 16.754770 18.105933
2.212538 16.754770 18.105933
-2.303808 19.622299 18.127688
2.821827 19.622299 18.127688
-5.225682 -4.030428 18.132587
5.743701 -4.030428 18.132587
-3.045919 -4.191603 18.152531
3.923258 0.532210 18.154897
5.582241 0.284035 18.187996
4.657559 -4.529058 18.194294
-5.417949 -0.017421 18.227987
-2.471566 -0.294496 18.264949
2.989585 -0.294496 18.264949
6.451804 -0.841743 18.335948
-2.074760 -1.587395 18.433193
-1.626261 18.174309 18.455395
2.144280 18.174309 18.455395
-6.107541 -1.865878 18.467677
6.625561 -1.865879 18.467677
2.581926 -2.034863 18.490217
-5.385046 18.065833 18.589308
5.903066 18.065833 18.589308
-3.797299 0.695891 18.593883
6.464891 -2.867689 18.596431
-2.724877 14.774294 18.604589
3.242896 14.774294 18.604589
-3.735700 14.364181 18.627615
4.253719 14.364181 18.627615
-2.455108 -3.360706 18.660867
2.973128 -3.360706 18.660867
-1.874201 15.861895 18.690053
2.392221 15.861895 18.690053
-4.482924 -4.332221 18.789571
-5.910056 -0.769314 18.794102
2.660915 -1.071098 18.835811
-4.876509 19.267634 18.878634
5.394524 19.267634 18.878634
4.737903 0.740759 18.959524
-2.117489 -2.413405 19.013553
-3.075909 20.090531 19.036874
3.593928 20.090535 19.036874
-5.413600 16.385948 19.043702
5.931619 16.385948 19.043702
-5.923064 -2.800233 19.064726
5.986827 -3.572864 19.169457
-3.029499 -4.026507 19.231930
3.547519 -4.026507 19.231930
4.985979 -4.268624 19.265392
-4.644254 0.672855 19.275268
-3.007133 0.522146 19.296341
3.525152 0.522146 19.296341
5.911219 0.156021 19.347298
-3.080974 14.108445 19.353439
3.598994 14.108445 19.353439
-2.023589 19.291313 19.427623
2.541608 19.291313 19.427623
-2.265347 -0.534782 19.443184
-1.325778 17.183301 19.447729
1.843797 17.183301 19.447729
-4.595708 14.328068 19.450223
5.113727 14.328068 19.450223
6.554091 -1.175748 19.529105
-5.158723 -3.819912 19.582368
-6.079223 -1.703002 19.600049
-5.237197 15.391047 19.622237
5.755217 15.391047 19.622237
2.573548 -1.873008 19.623822
-5.681745 -0.182397 19.658251
6.557262 -2.224638 19.670209
2.788562 -0.490822 19.701379
-3.943220 19.847312 19.719359
4.461238 19.847312 19.719364
-2.445606 -3.206310 19.803759
2.963625 -3.206310 19.803759
-1.513628 15.443138 19.838340
2.031648 15.443138 19.838340
-2.061447 -1.824697 19.881394
-4.097010 -4.280459 19.953016
4.247146 -4.283758 19.953473
-5.330638 17.594091 19.992737
5.848658 17.594091 19.992737
-3.781173 0.908054 20.031923
4.299192 0.908053 20.031928
-2.338410 13.976137 20.033886
2.856429 13.976137 20.033886
-5.717838 -3.077759 20.050119
5.673925 -3.723882 20.139530
-4.773614 18.915771 20.232220
5.291634 18.915771 20.232220
-1.311223 18.556173 20.235337
1.829242 18.556173 20.235337
-2.729807 19.858552 20.262507
3.247826 19.858552 20.262507
0.259010 12.639854 20.276737
0.259010 11.537821 20.278543
6.368092 -0.524410 20.284527
0.259010 13.720593 20.315319
0.259010 10.449185 20.321313
-5.976171 -1.015255 20.360798
-0.759648 16.004703 20.381998
1.277667 16.004703 20.381998
0.259010 14.758390 20.399782
-2.697378 0.404788 20.402305
3.215397 0.404788 20.402305
0.259010 9.408643 20.405584
-3.028861 -3.814301 20.415372
-0.743355 12.800210 20.440200
1.261374 12.800210 20.440200
-4.971899 0.624791 20.457361
5.489919 0.624791 20.457361
-1.126819 14.054852 20.465941
1.644839 14.054852 20.465941
-0.785035 11.667655 20.472219
1.303055 11.667655 20.472219
-5.434687 16.627322 20.490946
5.952707 16.627322 20.490946
-0.794431 10.537820 20.520349
1.312451 10.537820 20.520349
-0.266423 8.460040 20.573544
0.784442 8.460040 20.573544
-0.794619 9.461254 20.592776
1.312639 9.461254 20.592776
-2.148904 -0.758530 20.598372
-3.475421 13.339524 20.621658
3.993439 13.339524 20.621658
6.189859 -2.926598 20.638225
-0.682793 17.653673 20.651459
1.200812 17.653673 20.651459
2.600932 -1.188098 20.674711
-4.497709 13.717255 20.694204
5.015728 13.717255 20.694204
0.259010 7.610642 20.700894
3.538377 -3.724303 20.705646
-0.069789 16.657971 20.706657
-5.121363 -3.562458 20.717102
-2.063858 13.189074 20.719576
2.581878 13.189074 20.719576
-0.788196 7.619487 20.857372
1.306215 7.619487 20.857372
6.479366 -1.445984 20.859586
-5.205203 14.862876 20.859964
5.723222 14.862876 20.859964
-2.259139 -2.482582 20.898305
2.777159 -2.482582 20.898305
-3.733466 19.667738 20.907131
4.251484 19.667738 20.907131
-1.313089 8.486660 20.917749
1.831108 8.486660 20.917749
-5.923373 -1.947286 20.944226
-1.939343 11.819509 20.968715
2.457363 11.819509 20.968715
-1.884421 10.620482 21.065961
2.402441 10.620482 21.065961
-5.519013 0.039336 21.100650
6.037033 0.039337 21.100650
0.259010 6.187990 21.122415
-1.851646 9.495757 21.139247
2.369665 9.495757 21.139247
5.271719 -3.674943 21.150183
-4.039341 -3.938509 21.152579
-3.299466 0.963751 21.154248
3.817485 0.963751 21.154248
-0.875102 18.950932 21.222664
1.393121 18.950932 21.222664
-0.801430 6.186606 21.264776
1.319450 6.186606 21.264776
-2.707815 12.521133 21.274210
3.225834 12.521133 21.274210
-5.087979 18.049394 21.280636
5.605999 18.049394 21.280636
0.259010 18.065062 21.289088
2.729957 -0.182026 21.341925
-4.497228 0.940937 21.353735
5.015248 0.940937 21.353735
-2.306331 19.848190 21.355007
2.824349 19.848190 21.355007
-1.817359 7.611319 21.363577
2.335379 7.611319 21.363577
-2.949047 -3.478274 21.559064
-2.032554 -1.001315 21.564449
-4.028413 13.017928 21.571709
4.546432 13.017928 21.571709
0.259010 4.951436 21.581580
-5.456020 16.344750 21.593194
5.974040 16.344750 21.593194
6.250328 -2.290367 21.612721
-2.347160 8.446806 21.628728
2.865180 8.446806 21.628728
4.135172 -3.800822 21.641780
-2.333889 0.317743 21.660251
-5.552240 -2.688754 21.665523
2.553320 -1.417551 21.681854
-0.864005 4.947868 21.718802
1.382025 4.947868 21.718802
-1.827349 6.175866 21.743041
2.345369 6.175866 21.743041
-4.870143 13.835553 21.836767
5.388162 13.835553 21.836767
-4.166349 19.274702 21.865443
4.684367 19.274702 21.865443
-3.096626 11.439648 21.866013
3.614646 11.439648 21.866013
-2.214480 -2.247009 21.898179
-2.989495 10.433256 21.953760
3.507514 10.433256 21.953760
-0.120748 19.102389 21.955011
3.024782 0.842764 21.957883
2.904454 -2.653742 21.984782
-5.754992 -0.731462 22.006253
6.273011 -0.731461 22.006253
-5.407498 15.401135 22.025632
5.925518 15.401135 22.025632
-2.912737 9.388650 22.034316
3.430756 9.388650 22.034316
0.259010 3.752697 22.041507
-0.993781 19.720226 22.047976
1.511801 19.720226 22.047976
-3.587321 1.352622 22.124345
4.105340 1.352622 22.124345
-0.924622 3.737613 22.159133
1.442642 3.737613 22.159133
-5.351176 17.159636 22.171223
5.869196 17.159636 22.171223
-1.933705 4.924547 22.181070
2.451724 4.924547 22.181070
-3.825219 12.213778 22.228728
4.343237 12.213778 22.228728
-2.407875 1.125844 22.250763
-5.122384 0.605739 22.258808
5.640403 0.605739 22.258808
-2.812044 7.552499 22.266269
3.330064 7.552499 22.266269
-3.905160 -3.639470 22.287617
-2.801622 19.950742 22.333184
3.319642 19.950742 22.333184
5.152436 -3.376825 22.370892
-4.959161 -3.154326 22.399475
2.371337 -0.759663 22.444493
3.138319 1.808873 22.503176
0.259010 2.484466 22.516984
-2.095047 3.655666 22.545925
2.613067 3.655666 22.545925
-0.805446 2.459087 22.570189
1.323465 2.459087 22.570189
-1.764066 -0.155353 22.580634
-1.855764 -1.187261 22.615903
-2.788396 6.145771 22.620974
3.306414 6.145771 22.620974
2.254178 0.545968 22.634688
-2.518322 -2.893749 22.640260
-5.494499 16.265421 22.642351
6.012519 16.265421 22.642351
-2.445355 2.288025 22.644206
-5.056137 18.000415 22.721910
5.574156 18.000415 22.721910
-3.359958 8.346974 22.736945
3.877977 8.346974 22.736945
-1.476561 1.583163 22.738251
1.994580 1.583163 22.738251
0.630542 19.628631 22.771399
3.600703 -3.404695 22.804386
-3.450234 2.021031 22.907246
2.546064 -2.022170 22.945136
-1.440027 20.154701 22.954541
1.958047 20.154701 22.954541
-5.725928 -1.063229 22.984401
6.243942 -1.063228 22.984401
-0.545117 1.123319 22.999559
1.063136 1.123319 22.999559
-4.991112 13.494196 23.014412
5.509131 13.494196 23.014412
-2.906084 4.862261 23.031813
3.424104 4.862261 23.031813
-4.254125 11.365228 23.050285
4.772145 11.365228 23.050285
-4.353636 1.492623 23.099916
4.871656 1.492623 23.099916
-0.486611 19.911124 23.166085
3.874782 2.481109 23.172250
1.758317 -0.350307 23.184036
-4.092571 10.297993 23.196101
4.610590 10.297993 23.196101
-5.508096 15.357359 23.200543
6.026116 15.357359 23.200543
5.698473 -2.717523 23.231517
-5.411602 -2.384211 23.242179
-5.352747 0.464895 23.271321
5.870767 0.464895 23.271321
-5.364405 17.186864 23.279229
5.882425 17.186864 23.279229
0.259010 0.474924 23.298250
-4.576838 18.788397 23.306801
5.094857 18.788397 23.306801
-3.131087 3.597340 23.316668
3.649107 3.597339 23.316668
-0.969668 -0.252790 23.320894
-3.962172 9.262041 23.323923
4.480191 9.262041 23.323923
-3.363193 19.840312 23.357017
3.881211 19.840312 23.357017
-1.850377 -1.941513 23.362519
-3.321847 -3.359059 23.561546
-3.765446 7.485328 23.598635
4.283465 7.485328 23.598635
4.237915 -3.339835 23.687109
1.772801 -1.383762 23.694065
2.734376 -2.702521 23.713419
0.987520 20.029099 23.733241
-5.664383 -0.390351 23.752301
6.182402 -0.390351 23.752301
-5.007109 12.422405 23.763203
5.525129 12.422405 23.763203
0.869670 -0.782448 23.804450
-3.720486 2.924400 23.810694
-5.506648 14.425652 23.864690
6.024668 14.425652 23.864690
-0.969599 -1.349723 23.870369
-4.509214 -3.063729 23.931879
-3.679253 6.078837 23.935433
4.197273 6.078837 23.935433
-5.582698 16.320639 23.970780
6.100718 16.320639 23.970780
-5.012980 18.081521 23.994361
5.530999 18.081521 23.994361
-5.660652 -1.373607 24.086114
6.178672 -1.373607 24.086114
-2.646284 20.192204 24.098037
3.164303 20.192204 24.098037
4.773484 2.269027 24.100334
-4.721062 1.654359 24.119380
-1.995728 -2.656856 24.151222
-1.394975 20.368017 24.238273
1.912994 20.368017 24.238273
-4.342521 8.293234 24.280762
4.860541 8.293234 24.280762
-3.792978 4.727449 24.310199
4.310998 4.727449 24.310199
0.936825 -1.852645 24.396552
-0.093197 20.011639 24.443852
-0.082173 -1.868324 24.444971
4.569575 3.383939 24.503443
-5.581819 0.330080 24.519489
6.099839 0.330080 24.519489
-4.138729 6.722464 24.597748
4.656749 6.722464 24.597748
3.131891 -3.142787 24.613966
5.609734 1.405132 24.623553
-5.623469 13.459491 24.649873
6.141489 13.459491 24.649873
-5.461233 12.421713 24.656922
5.979253 12.421713 24.656922
-5.751364 15.441337 24.731784
6.269384 15.441337 24.731784
-5.293804 11.350414 24.738897
5.811823 11.350414 24.738897
4.984529 -2.929514 24.765271
1.920536 -2.653024 24.768712
-4.486485 18.884601 24.781661
5.004504 18.884601 24.781661
-5.378493 17.294919 24.783511
5.896513 17.294919 24.783511
-3.037810 -3.207731 24.850426
-5.123955 10.282600 24.869418
5.641979 10.282600 24.869418
-1.022322 -2.672276 24.904618
-4.829003 -2.703680 24.937466
0.259010 -2.721760 24.967424
-5.736761 -0.668678 25.009702
6.254781 -0.668678 25.009702
-4.954469 9.255296 25.022116
5.472488 9.255296 25.022116
-4.616874 2.608969 25.089325
5.134893 2.608968 25.089325
4.020391 -3.167129 25.090170
1.001501 20.253223 25.113540
5.905009 -2.082747 25.179969
-5.573362 -1.673673 25.209234
-4.346919 3.907468 25.245421
-3.968256 -3.044124 25.333408
-4.646388 7.461320 25.348154
5.164407 7.461320 25.348154
-0.245281 -3.537832 25.436677
0.763301 -3.537832 25.436677
-1.312959 -3.471358 25.534482
1.830979 -3.471358 25.534482
-5.956330 14.535503 25.552182
6.474350 14.535508 25.552182
-5.631956 0.664326 25.582626
6.149976 0.664326 25.582626
-5.699814 16.473357 25.618346
6.217833 16.473357 25.618346
-4.955696 18.210255 25.623760
5.473715 18.210255 25.623760
-3.862038 19.552046 25.625429
4.380058 19.552046 25.625429
-5.717612 11.390208 25.654866
6.235632 11.390208 25.654866
-4.472045 5.969977 25.674928
4.990065 5.969977 25.674928
-2.608165 20.319294 25.695117
3.126185 20.319294 25.695117
-5.550693 10.325045 25.790311
6.068713 10.325050 25.790311
-1.426137 20.548690 25.796162
1.944156 20.548690 25.796162
5.311494 -2.630270 25.815090
0.259010 -4.547839 25.832619
-2.594943 -3.461927 25.897109
3.112961 -3.461927 25.897109
-0.113678 20.242679 25.901850
-5.366000 9.297506 25.953980
5.884020 9.297506 25.953980
5.094849 4.506072 26.010037
-5.122325 -2.346517 26.032519
-1.165947 -4.490064 26.050156
1.683967 -4.490064 26.050156
-5.418229 1.524939 26.055045
5.936253 1.524939 26.055045
-4.890381 3.036815 26.101917
5.408401 3.036815 26.101917
-5.783663 -0.445888 26.137260
6.301683 -0.445888 26.137260
0.259010 -5.571072 26.267324
-5.002858 7.475369 26.296712
5.520878 7.475369 26.296712
6.113421 -1.559764 26.307354
-4.300986 -2.895512 26.317383
-6.187351 13.596683 26.444483
6.705371 13.596683 26.444483
-0.953723 -5.531273 26.454825
1.471742 -5.531273 26.454825
-5.994240 15.631434 26.462429
6.512259 15.631434 26.462429
-4.400050 19.015672 26.471893
4.918069 19.015672 26.471893
-5.383387 17.480912 26.485318
5.901406 17.480912 26.485318
-6.152274 12.536114 26.485401
6.670293 12.536114 26.485401
-3.214786 20.060931 26.493388
3.732806 20.060931 26.493388
-2.140853 -4.370111 26.541625
2.658872 -4.370111 26.541625
4.171306 -3.272821 26.580776
1.050523 20.472969 26.658274
0.259010 -6.454002 26.774172
-4.765112 5.172272 26.780706
5.283132 5.172272 26.780706
-0.890736 -6.424216 26.905111
1.408755 -6.424216 26.905111
5.565164 -2.379998 26.926625
-3.377840 -3.649011 26.999524
-5.208909 2.814228 27.033963
5.726928 2.814228 27.033963
-5.776801 0.463119 27.055772
6.294820 0.463119 27.055772
-5.471414 8.395943 27.072167
5.989433 8.395943 27.072167
-5.337481 -2.012512 27.234462
-2.110649 -5.356127 27.268405
2.628668 -5.356127 27.268405
-3.790063 19.679573 27.296601
4.308083 19.679573 27.296601
3.575891 -4.148312 27.299683
-4.513833 -2.861996 27.302324
-4.903050 18.406052 27.310522
5.421070 18.406052 27.310522
-2.601727 20.427829 27.325964
3.119747 20.427829 27.325964
-5.771666 16.718176 27.332429
6.289686 16.718176 27.332429
-6.248479 14.751018 27.337352
6.766498 14.751018 27.337352
0.259010 -7.403807 27.369838
-1.486897 20.693633 27.379876
2.004917 20.693633 27.379876
-5.095455 6.686494 27.405406
5.613475 6.686494 27.405406
-5.714613 -0.923587 27.430808
6.232633 -0.923587 27.430808
-0.143248 20.497664 27.447611
-0.916823 -7.378700 27.463446
1.434842 -7.378700 27.463446
-6.241862 11.553166 27.518055
6.759881 11.553166 27.518055
-6.080092 10.488287 27.653774
6.598112 10.488287 27.653774
-1.808515 -6.714637 27.757391
2.326534 -6.714637 27.757391
4.705532 -3.260939 27.802389
-5.873158 9.456576 27.811357
6.391177 9.456576 27.811357
-5.613770 1.659037 27.844127
6.131789 1.659037 27.844127
-5.007885 4.315745 27.877314
5.525904 4.315745 27.877314
-3.081784 -4.561917 27.951258
-5.357989 2.637139 28.009730
5.876009 2.637139 28.009730
0.259010 -8.641324 28.043752
-1.571460 -7.873168 28.049672
2.089479 -7.873168 28.049672
-4.294776 19.188266 28.095077
4.812792 19.188266 28.095077
3.269832 -5.127978 28.111290
5.663160 -2.225501 28.112100
-5.312624 17.735112 28.139643
5.830643 17.735112 28.139643
-5.414655 7.572717 28.143594
5.932675 7.572717 28.143594
-3.785003 -3.793137 28.157221
1.099072 20.670105 28.184208
-6.026244 15.901243 28.198733
6.544264 15.901243 28.198733
-2.514262 -5.616409 28.237840
-6.345572 13.819311 28.290093
6.863591 13.819311 28.290093
2.877159 -6.067632 28.354318
-6.358589 12.737742 28.362731
6.876609 12.737742 28.362731
-5.690492 -0.069022 28.379808
6.208512 -0.069022 28.379808
3.886164 -4.387478 28.402202
-0.555917 -9.352450 28.424816
1.073936 -9.352450 28.424816
-5.057226 5.900147 28.466692
5.575246 5.900147 28.466692
-5.020942 -4.187887 28.514551
5.538961 -4.187887 28.514551
-2.256221 -7.020166 28.650648
2.774240 -7.020166 28.650648
0.259010 -10.101943 28.657791
-5.386273 -1.695617 28.672507
-4.734821 -2.722461 28.707334
-2.542008 20.461988 28.776933
3.060027 20.461988 28.776933
-1.610146 -9.245991 28.812482
2.128165 -9.245991 28.812482
-3.602642 19.778502 28.818230
4.120662 19.778502 28.818230
-1.512353 20.716237 28.824012
2.030372 20.716237 28.824012
-2.113379 -8.347325 28.850347
2.631398 -8.347325 28.850347
-5.665266 8.573823 28.862231
6.183286 8.573823 28.862231
-4.657382 18.609152 28.887049
5.175402 18.609142 28.887049
-4.823074 -5.242993 28.905064
5.341093 -5.242993 28.905064
-5.098592 3.442665 28.910743
5.616611 3.442665 28.910743
-0.162947 20.654682 28.938291
-0.504062 -10.880903 28.957297
1.022082 -10.880903 28.957297
-5.530165 16.994656 28.991020
6.048185 16.994656 28.991020
-3.190742 -4.802936 29.059441
-5.384364 1.718512 29.069347
5.902383 1.718512 29.069347
4.743280 -3.365465 29.102102
0.259010 -11.616131 29.104807
-1.277632 -10.220580 29.117859
1.795651 -10.220580 29.117859
-6.044632 15.009458 29.146241
6.562647 15.009458 29.146241
-5.189171 6.773387 29.170397
5.707191 6.773387 29.170397
3.438684 -5.325296 29.203108
5.351990 -2.472228 29.274102
-2.757539 -5.804710 29.326349
-5.436449 0.026295 29.375004
5.954469 0.026295 29.375004
-3.735203 -4.016585 29.378362
-6.100335 11.762068 29.422682
6.618355 11.762068 29.422682
-0.677128 -12.131903 29.444049
1.195147 -12.131903 29.444049
3.199104 -6.279008 29.449655
-5.009303 -3.352568 29.459723
-4.880127 5.098308 29.486033
5.398147 5.098308 29.486033
-5.949173 10.698166 29.519098
6.467193 10.698166 29.519098
1.109005 20.634969 29.586160
0.259010 -12.670122 29.590921
-2.671020 -6.786019 29.593513
5.620700 -3.505161 29.606334
-5.744065 9.664791 29.622636
6.262085 9.664791 29.622636
-1.186231 -11.256974 29.632252
1.704251 -11.256974 29.632252
-2.144676 -9.685748 29.679022
2.662696 -9.685748 29.679022
-5.124691 -1.580939 29.697999
5.642710 -1.580939 29.697999
-4.772117 17.946366 29.702716
5.290136 17.946366 29.702716
-4.255578 -5.773589 29.772895
4.773596 -5.773589 29.772895
3.225084 -7.363566 29.778417
-5.254417 7.734531 29.866041
5.772436 7.734531 29.866041
-2.601899 -8.787160 29.885269
3.119918 -8.787155 29.885269
-4.953747 2.597478 29.909164
5.471767 2.597478 29.909164
-2.277986 20.297558 29.916905
2.796005 20.297558 29.916905
4.321320 -3.855580 29.921784
-5.431232 16.157632 29.928347
5.949251 16.157632 29.928347
-4.912985 -4.550283 29.974960
5.431005 -4.550283 29.974960
-5.624721 15.125111 30.066707
6.142741 15.125111 30.066707
-0.990333 20.458297 30.134938
-5.070892 0.911272 30.138658
5.588912 0.911272 30.138658
-4.802757 5.971460 30.151391
5.320776 5.971460 30.151391
-5.729521 14.043032 30.202790
6.247540 14.043032 30.202790
-3.400700 19.248107 30.204449
3.918719 19.248107 30.204449
-4.239986 -3.065258 30.272856
0.259010 20.438962 30.288014
-3.146655 -5.009591 30.292815
3.664674 -5.009591 30.292815
-0.608144 -12.669425 30.314727
1.126163 -12.669425 30.314727
-5.747133 12.943317 30.322110
6.265153 12.943317 30.322110
-4.978025 -0.739401 30.373120
5.496045 -0.739402 30.373120
-5.679060 11.857871 30.410200
6.197079 11.857871 30.410200
5.476602 -2.891832 30.444232
-4.567054 4.286054 30.445734
5.085074 4.286054 30.445734
-5.542687 10.794582 30.480075
6.060707 10.794582 30.480075
-1.728208 -11.031068 30.506916
2.246228 -11.031068 30.506916
-2.919594 -7.841812 30.521656
-5.355398 9.761325 30.544761
5.873417 9.761325 30.544761
1.884869 20.185032 30.551079
-2.958813 -5.985014 30.575543
3.476833 -5.985014 30.575543
-4.158591 -4.887356 30.588492
4.676610 -4.887356 30.588492
-4.513294 17.187345 30.602718
5.031314 17.187345 30.602718
-2.532862 19.614960 30.610046
3.050881 19.614960 30.610046
-5.134577 8.765997 30.617272
5.652597 8.765997 30.617272
-1.163724 -11.858466 30.634663
1.681744 -11.858466 30.634663
-2.514997 -10.106273 30.756805
3.033016 -10.106273 30.756805
3.459890 -8.492871 30.784863
-2.212619 -16.072243 30.798038
2.730639 -16.072243 30.798038
-4.663582 6.904796 30.819312
5.181601 6.904796 30.819312
-4.198781 -6.104113 30.822454
4.716801 -6.104113 30.822454
-4.583460 1.784562 30.828555
5.101480 1.784562 30.828555
-4.895619 -3.796319 30.847336
3.516951 -7.059274 30.879694
4.769737 -3.902420 30.907555
-1.651453 -14.687752 30.941955
2.169471 -14.687747 30.941955
-1.382571 19.859549 30.975461
-2.721993 -17.564784 30.996083
3.240012 -17.564779 30.996083
-4.922435 15.215897 31.001644
5.440454 15.215897 31.001644
-4.599440 0.109527 31.010529
5.117459 0.109525 31.010529
-4.280898 5.163142 31.060450
4.798918 5.163142 31.060450
0.259010 -12.744891 31.073237
-1.259897 -13.583535 31.106100
1.777916 -13.583540 31.106100
-2.913722 -9.158102 31.111500
-3.688814 -3.636987 31.129402
-3.455463 18.014851 31.137599
3.973482 18.014851 31.137599
-5.010481 14.127820 31.193190
5.528501 14.127820 31.193190
-4.386842 -1.489934 31.221586
4.904861 -1.489934 31.221586
1.050071 19.838545 31.290391
-4.108099 3.480510 31.297671
4.626118 3.480510 31.297671
3.890858 -4.218811 31.315440
-5.025330 13.021413 31.345118
5.543349 13.021413 31.345118
-0.132805 19.840469 31.371256
-3.170725 -16.546989 31.420048
3.688745 -16.546989 31.420048
-4.970328 11.934097 31.431682
5.488348 11.934097 31.431682
-0.754755 -12.794037 31.461958
1.272774 -12.794037 31.461958
-3.184467 -4.721787 31.466896
-3.061771 -6.873530 31.473440
-4.859044 10.871427 31.474672
5.377064 10.871427 31.474672
-1.932081 -16.895223 31.491057
2.450101 -16.895223 31.491057
-2.689003 -15.117868 31.493388
3.207022 -15.117868 31.493388
-4.705040 9.838945 31.495887
5.223060 9.838945 31.495887
-2.436167 18.625601 31.499289
2.954186 18.625601 31.499289
-2.060443 -11.446375 31.505547
2.578462 -11.446375 31.505547
-4.893606 -2.442279 31.510873
5.411626 -2.442279 31.510873
-4.521882 8.842209 31.517122
5.039902 8.842209 31.517122
-3.179574 -19.165364 31.536089
3.697593 -19.165359 31.536089
4.337662 -2.918841 31.547722
-4.087018 0.977047 31.569551
4.605037 0.977047 31.569551
-4.470672 -4.995204 31.592573
4.988692 -4.995204 31.592573
4.117926 -5.602345 31.593284
-2.213338 -13.749521 31.612659
2.731357 -13.749521 31.612659
-3.917645 16.313943 31.622393
4.435665 16.313943 31.622393
-1.441010 -15.555803 31.627179
1.959029 -15.555803 31.627179
-3.939308 6.074807 31.689165
4.457328 6.074807 31.689165
-3.565010 -5.830087 31.714631
-4.036189 -0.662510 31.716050
4.554208 -0.662511 31.716050
-1.839053 -12.509354 31.754195
2.357072 -12.509354 31.754195
-0.977058 -14.289591 31.806860
1.495078 -14.289591 31.806860
-3.525900 -18.116875 31.807493
4.043920 -18.116875 31.807493
-3.674398 4.353203 31.837878
4.192418 4.353203 31.837878
-2.445352 -18.407536 31.863894
2.963372 -18.407536 31.863894
-3.082425 -8.121899 31.874192
3.600444 -8.121899 31.874192
-4.046129 15.284716 31.898480
4.564149 15.284716 31.898485
-1.056096 19.051314 31.937465
1.574115 19.051314 31.937465
-2.645064 -10.456490 31.949717
3.163084 -10.456490 31.949717
-3.725721 -2.165188 31.950605
-4.773688 -3.412649 31.963814
5.291707 -3.412649 31.963819
-3.560727 2.681063 31.975374
4.078746 2.681063 31.975374
0.259010 -13.235266 32.006142
-2.870234 17.268746 32.027715
3.388253 17.268746 32.027715
3.588368 -6.665742 32.071515
-3.535702 0.210693 32.137743
4.053720 0.210693 32.137743
-4.113245 14.193060 32.148257
4.631264 14.193060 32.148257
-2.753453 -15.886072 32.150756
3.271472 -15.886072 32.150756
-3.552709 -20.482047 32.193549
4.070728 -20.482047 32.193549
-1.909986 18.010134 32.247117
2.428005 18.010134 32.247117
-2.314536 -14.503559 32.272436
2.832555 -14.503559 32.272436
0.259010 19.055496 32.272873
3.936072 -1.343046 32.298982
-3.265913 -3.431552 32.306880
3.783931 -3.431552 32.306880
-4.124270 13.081535 32.335125
4.642291 13.081535 32.335125
-3.608996 7.945009 32.370717
4.127016 7.945009 32.370717
-3.200547 5.248587 32.396468
3.718566 5.248587 32.396468
-3.890827 9.899302 32.417497
4.408847 9.899302 32.417497
-4.084483 11.992721 32.422499
4.602504 11.992721 32.422499
-3.955811 -19.570333 32.423515
4.473829 -19.570333 32.423515
-3.048748 3.546005 32.427172
3.566767 3.546005 32.427172
-4.476158 -4.295622 32.431212
4.994173 -4.295622 32.431212
-4.003472 10.930630 32.440057
4.521491 10.930630 32.440057
-2.901261 -9.470008 32.460060
3.419281 -9.470008 32.460060
-2.940635 -17.376463 32.462858
3.458655 -17.376463 32.462858
-2.988148 1.894063 32.467006
3.506168 1.894063 32.467006
-3.139323 -4.429928 32.471698
3.657342 -4.429928 32.471698
-2.184632 -11.674461 32.482865
2.702652 -11.674461 32.482865
4.458799 -5.881083 32.504626
-1.902032 -13.201229 32.509834
2.420051 -13.201229 32.509834
-0.599856 -13.594005 32.522419
1.117875 -13.594005 32.522419
4.735669 -2.751473 32.563122
-2.838598 -19.016779 32.595819
3.356618 -19.016779 32.595823
-2.945482 -0.486163 32.596874
3.463501 -0.486163 32.596874
-4.804283 -2.069688 32.629060
-3.030544 -6.437460 32.653746
-3.104171 15.334475 32.704648
3.622190 15.334475 32.704648
0.259010 -14.024190 32.818667
-2.417765 1.135331 32.819884
2.935784 1.135331 32.819884
-2.442337 2.745074 32.829328
2.960356 2.745074 32.829333
-2.758810 -1.935273 32.829466
3.276829 -1.935273 32.829466
-0.710293 18.015038 32.850116
1.228312 18.015038 32.850116
-2.513574 4.423858 32.899434
3.031593 4.423858 32.899434
-3.841401 -21.514838 32.968469
4.359420 -21.514838 32.968469
-2.147327 16.389188 32.971370
2.665346 16.389188 32.971370
-2.649679 6.165867 32.990852
3.167699 6.165867 32.990852
-3.149699 14.240910 33.008774
3.667718 14.240910 33.008774
-4.119122 -5.067773 33.054768
-2.953689 -7.719100 33.063397
3.471708 -7.719100 33.063397
-2.833116 7.990837 33.098401
3.351135 7.990837 33.098401
-1.866081 1.959494 33.099088
2.384101 1.959493 33.099088
-4.640739 -3.058474 33.111060
-2.520104 -10.746833 33.151454
3.038124 -10.746833 33.151454
-1.823269 -0.320179 33.183144
2.341289 -0.320179 33.183144
-2.526383 -3.096267 33.202347
3.044402 -3.096267 33.202347
-3.341594 -20.146344 33.203598
3.859613 -20.146344 33.203598
2.410053 3.600040 33.212650
-1.892034 3.600040 33.212655
3.770828 -5.698668 33.216071
-3.156665 13.125659 33.228584
3.674685 13.125659 33.228584
-3.010598 9.944045 33.251055
3.528617 9.944045 33.251055
-3.618873 -3.294190 33.274587
4.136893 -3.294190 33.274587
-3.081211 10.974121 33.313405
3.599230 10.974121 33.313405
-3.131867 12.035696 33.318024
3.649887 12.035696 33.318024
2.478181 -12.285838 33.328190
-1.960162 -12.285838 33.328195
-2.204923 15.368090 33.367572
2.722943 15.368090 33.367572
-3.033904 -5.592631 33.384703
-1.943080 5.317916 33.395978
2.461100 5.317916 33.395978
-1.327927 2.781527 33.402026
1.845947 2.781526 33.402026
0.259010 17.313223 33.422235
-1.708339 -1.726200 33.447500
2.226359 -1.726200 33.447500
-1.131116 -13.842560 33.469103
1.649135 -13.842560 33.469103
-0.784155 1.196927 33.515436
1.302174 1.196927 33.515436
-2.761831 -9.097195 33.520457
3.279851 -9.097195 33.520457
-4.310847 -3.964115 33.584991
4.828867 -3.964115 33.584991
-2.026295 7.098453 33.593331
2.544315 7.098453 33.593331
-1.344033 4.466951 33.609633
1.862053 4.466951 33.609633
-0.762127 -0.286650 33.622611
1.280146 -0.286650 33.622611
-4.222215 -2.220183 33.631923
4.740235 -2.220183 33.631923
-0.803160 16.417938 33.686026
1.321179 16.417938 33.686026
0.259010 1.189091 33.688436
-0.794544 3.620749 33.701282
1.312563 3.620748 33.701282
-2.231738 14.273543 33.715512
2.749757 14.273543 33.715512
0.259010 2.786812 33.766553
0.259010 -0.304271 33.806872
-2.119855 8.980628 33.813411
2.637874 8.980628 33.813411
-4.033540 -22.176647 33.826958
4.551560 -22.176647 33.826958
-1.371255 6.218041 33.864029
1.889274 6.218041 33.864029
0.259010 16.422459 33.879270
3.125434 -6.171263 33.879452
0.259010 -14.983145 33.885735
-3.732885 -21.024380 33.897236
4.250904 -21.024380 33.897236
-0.706490 -1.681531 33.903529
1.224509 -1.681531 33.903529
-1.583507 -2.965982 33.909674
2.101526 -2.965982 33.909674
-2.162188 9.974822 33.938036
2.680207 9.974822 33.938036
-0.265254 4.477722 33.961411
0.783273 4.477722 33.961411
-2.235222 13.155768 33.961937
2.753241 13.155768 33.961937
-0.800021 5.345459 33.971793
1.318040 5.345459 33.971793
-2.197495 11.003804 34.031885
2.715514 11.003804 34.031885
-2.222823 12.064986 34.053625
2.740842 12.064986 34.053625
-2.078677 -11.566912 34.054750
2.596696 -11.566912 34.054750
-2.543525 -6.752193 34.056792
-1.407941 8.043644 34.129557
1.925960 8.043644 34.129557
-0.821883 15.398828 34.133229
1.339902 15.398828 34.133229
-3.960686 -4.773696 34.143208
4.478705 -4.773696 34.143208
0.259010 5.348517 34.151926
-0.813249 -14.823933 34.215861
1.331268 -14.823933 34.215861
3.019851 -7.386254 34.228968
-0.265253 6.231083 34.256549
0.783273 6.231083 34.256549
-0.808342 7.128425 34.260486
1.326361 7.128425 34.260486
0.259010 -2.354096 34.285834
-2.599446 -3.463047 34.291710
3.117465 -3.463047 34.291710
0.259010 15.402578 34.333880
-0.635770 -2.944448 34.338283
1.153790 -2.944448 34.338283
-1.706386 -12.687185 34.346491
2.224405 -12.687180 34.346491
4.094976 -2.804999 34.386560
-3.576956 -2.804996 34.386565
-2.450301 -8.067428 34.392038
-2.316684 -5.707126 34.417106
-2.266083 -10.292443 34.422241
2.784102 -10.292443 34.422241
0.259010 7.131753 34.450770
-0.828885 14.302911 34.521445
1.346904 14.302911 34.521445
-1.553594 -13.756128 34.529259
2.071613 -13.756123 34.529259
2.874917 -8.789732 34.542047
-0.265253 8.056843 34.561578
0.783272 8.056843 34.561578
3.322891 -5.453112 34.562359
-0.817698 9.009476 34.564798
1.335717 9.009476 34.564798
-3.531584 -5.502862 34.681389
-4.160431 -3.643150 34.691579
4.678451 -3.643150 34.691579
-1.413842 -3.897553 34.692919
1.931862 -3.897553 34.692919
-0.821931 10.002521 34.726200
1.339950 10.002521 34.726200
0.259010 14.306176 34.727152
0.259010 9.012686 34.764443
0.259010 -3.507124 34.766333
-0.829233 13.182864 34.791833
1.347253 13.182864 34.791833
-0.825461 11.030527 34.848386
1.343481 11.030527 34.848386
-4.232999 -22.351086 34.862125
4.751019 -22.351086 34.862125
-4.449439 -1.691564 34.879443
4.967458 -1.691564 34.879443
-0.827994 12.091356 34.885540
1.346013 12.091356 34.885540
0.259010 10.005594 34.929924
-1.802990 -11.182083 34.969963
2.321010 -11.182083 34.969963
0.259010 13.185873 35.000206
2.374409 -5.960456 35.029147
0.259010 -15.780767 35.048271
0.259010 11.033496 35.055266
-1.973678 -9.406460 35.072486
0.259010 12.094281 35.094138
-1.808470 -6.539526 35.122407
-0.561741 -4.407799 35.184339
1.079761 -4.407799 35.184339
-1.351050 -14.753547 35.223815
1.869070 -14.753547 35.223815
2.302861 -7.168639 35.239616
-1.232604 -12.179998 35.250346
1.750623 -12.179998 35.250346
-0.746302 -15.613185 35.259343
1.264322 -15.613185 35.259343
4.187658 -4.822340 35.281825
-3.664563 -2.388214 35.315145
4.182583 -2.388214 35.315145
-2.087992 -5.199026 35.315783
-1.763741 -7.850647 35.344425
2.241423 -8.588374 35.400516
2.122741 -10.029644 35.410677
2.139338 -5.074773 35.497943
-1.027027 -5.249629 35.575908
-1.395012 -13.614111 35.588003
1.913031 -13.614111 35.588003
0.259010 -4.852990 35.613719
-2.647090 -3.438844 35.639273
3.165110 -3.438844 35.639273
-0.894686 -11.110363 35.644992
1.412705 -11.110363 35.644992
-1.292893 -9.994385 35.649051
-4.020539 -3.337210 35.735827
4.538558 -3.337210 35.735827
-0.128562 -11.859355 35.765338
0.990918 -12.502477 35.844220
-0.981377 -6.415670 35.853733
1.499397 -6.415670 35.853733
3.069422 -4.945827 35.870550
-4.181176 -1.676004 35.882738
4.699196 -1.676004 35.882738
-0.777469 -12.878564 35.898176
1.473773 -9.248647 35.933120
0.259010 -10.601566 35.954306
-0.966132 -8.487565 35.999426
1.489706 -7.739682 36.014432
-2.994794 -4.881951 36.034558
-0.149263 -5.822945 36.039280
-2.121138 -4.362566 36.139230
-0.155595 -9.227329 36.189210
-1.298226 -15.344422 36.229971
1.816245 -15.344422 36.229971
0.259010 -16.265163 36.261617
0.673339 -8.460847 36.294716
0.670389 -7.019042 36.312044
-0.154064 -7.708134 36.345207
-3.369449 -2.559973 36.389679
3.887467 -2.559974 36.389679
-1.346919 -14.214336 36.427702
1.864938 -14.214336 36.427702
0.259010 -13.058770 36.436955
3.593443 -4.541374 36.650034
-3.474258 -4.184740 36.714190
4.255384 -3.436096 36.756110
-4.236469 -1.906369 36.915038
4.754488 -1.906369 36.915038
-0.555799 -16.267902 37.000807
1.073819 -16.267902 37.000807
-0.422011 -13.612491 37.017477
0.940031 -13.612491 37.017477
-2.904345 -3.303846 37.152200
-1.395198 -14.857071 37.196697
1.913218 -14.857071 37.196697
-3.766267 -2.827896 37.429509
4.059887 -2.366207 37.580715
0.259010 -16.463880 37.595535
-1.070277 -15.945565 37.814318
1.588296 -15.945570 37.814318
0.259010 -13.866450 37.892906
-0.938277 -14.338025 38.037883
1.456297 -14.338025 38.037883
-1.221234 -15.128407 38.586450
1.739252 -15.128407 38.586450
-0.047697 -14.116266 38.834126
0.259010 -16.391006 38.968491
-0.828381 -16.061910 38.977905
1.346400 -16.061900 38.977905
1.083280 -14.298083 39.075720
-0.887342 -14.592303 39.386988
1.517198 -14.904650 39.818842
0.259010 -13.795113 39.884161
-0.917335 -15.496649 39.969675
1.149624 -15.856969 40.078971
-0.035254 -16.031963 40.143652
-0.751040 -14.111569 40.362932
1.101419 -13.733097 40.577244
0.030550 -13.247999 40.691414
1.267382 -15.167676 40.862378
-0.660998 -15.274150 40.918798
0.864280 -12.936991 41.326201
-0.735671 -13.604981 41.337923
0.397548 -15.213390 41.441604
1.312851 -13.950290 41.581064
-0.150507 -12.610330 41.592923
-0.572705 -14.443188 41.937889
0.259010 -12.037662 42.351104
0.733810 -14.365926 42.366228
-0.714758 -13.071930 42.377611
1.232777 -13.071930 42.377611
-0.288916 -13.912513 42.879477
0.883976 -13.698530 43.101422
-0.317656 -11.827385 43.218483
0.835675 -11.827385 43.218483
-0.714207 -12.733626 43.384705
1.232226 -12.733626 43.384705
0.136328 -13.461216 43.824835
-0.577986 -12.030785 44.165304
1.096006 -12.030785 44.165304
1.027397 -13.220569 44.376759
-0.633730 -13.018981 44.482384
0.007333 -13.826931 44.749424
0.259010 -11.815417 44.822411
1.069958 -12.502291 45.084916
1.019907 -13.753689 45.226187
-0.413558 -12.622538 45.381900
0.361486 -14.484200 45.446385
-0.454409 -13.740803 45.655636
0.564060 -13.074871 45.897107
