ply
format ascii 1.0
element vertex 118
property float x
property float y
property float z
end_header
-6.230781 -8.815145 0.000000
1.932388 -10.620513 0.000000
5.804722 -9.101352 0.000000
8.815145 -6.230781 0.000000
10.557695 -2.250443 0.000000
10.620513 1.932389 0.000000
9.101352 5.804723 0.000000
6.230781 8.815145 0.000000
2.250443 10.557695 0.000000
-1.932389 10.620513 0.000000
-5.804723 9.101352 0.000000
-8.815145 6.230781 0.000000
-10.557695 2.250443 0.000000
-10.620513 -1.932388 0.000000
-9.101352 -5.804722 0.000000
-1.600763 -7.509795 1.272854
-1.600763 -7.509795 1.272854
4.128958 -6.473884 1.272854
7.509795 -1.600763 1.272854
6.473884 4.128958 1.272854
1.600763 7.509795 1.272854
-4.128958 6.473884 1.272854
-7.509795 1.600763 1.272854
-2.913083 -13.666391 1.335017
-2.913083 -13.666391 1.335017
2.501377 -13.747707 1.335017
7.513914 -11.781231 1.335017
11.410750 -8.065425 1.335017
13.666391 -2.913083 1.335017
13.747707 2.501377 1.335017
11.781231 7.513914 1.335017
8.065425 11.410750 1.335017
2.913083 13.666393 1.335017
-2.501377 13.747707 1.335017
-7.513914 11.781232 1.335017
-11.410750 8.065425 1.335017
-13.666393 2.913083 1.335017
-13.747707 -2.501377 1.335017
-11.781232 -7.513914 1.335017
1.200097 -6.595797 2.696315
5.474586 -3.869585 2.696315
6.595797 1.200097 2.696315
3.869585 5.474586 2.696315
-1.200097 6.595798 2.696315
-5.474586 3.869585 2.696315
-6.595798 -1.200097 2.696315
-8.800114 -12.450168 4.451389
-3.178439 -14.911278 4.451389
-3.178439 -14.911278 4.451389
2.729230 -15.000000 4.451389
8.198365 -12.854396 4.451389
8.198365 -12.854396 4.451389
12.450168 -8.800113 4.451389
14.911278 -3.178439 4.451389
14.911278 -3.178439 4.451389
15.000000 2.729231 4.451389
12.854396 8.198365 4.451389
12.854396 8.198365 4.451389
8.800113 12.450168 4.451389
3.178439 14.911278 4.451389
3.178439 14.911278 4.451389
-2.729231 15.000000 4.451389
-8.198365 12.854397 4.451389
-8.198365 12.854397 4.451389
-12.450168 8.800114 4.451389
-14.911278 3.178439 4.451389
-14.911278 3.178439 4.451389
-15.000000 -2.729230 4.451389
-12.854397 -8.198365 4.451389
-12.854397 -8.198365 4.451389
-3.852202 -5.449994 6.134537
1.194706 -6.566168 6.134537
5.449994 -3.852202 6.134537
6.566168 1.194706 6.134537
3.852202 5.449994 6.134537
-1.194706 6.566169 6.134537
-5.449994 3.852202 6.134537
-6.566169 -1.194706 6.134537
-1.587804 -7.448998 7.567762
4.095531 -6.421473 7.567762
7.448998 -1.587804 7.567762
6.421473 4.095531 7.567762
1.587804 7.448998 7.567762
-4.095531 6.421473 7.567762
-7.448998 1.587804 7.567762
-6.421473 -4.095531 7.567762
-2.900124 -13.605595 7.629925
-2.900124 -13.605595 7.629925
2.490249 -13.686548 7.629925
7.480488 -11.728821 7.629925
11.359988 -8.029545 7.629925
13.605595 -2.900123 7.629925
13.686548 2.490250 7.629925
11.728821 7.480488 7.629925
8.029545 11.359989 7.629925
2.900123 13.605595 7.629925
-2.490250 13.686548 7.629925
-7.480488 11.728821 7.629925
-11.359989 8.029545 7.629925
-13.605595 2.900124 7.629925
-13.686548 -2.490249 7.629925
-11.728821 -7.480488 7.629925
-5.217756 -7.381944 8.542182
1.618213 -8.893788 8.542182
7.381944 -5.217756 8.542182
8.893788 1.618213 8.542182
5.217756 7.381944 8.542182
-1.618213 8.893788 8.542182
-7.381944 5.217756 8.542182
-8.893788 -1.618213 8.542182
-2.250443 -10.557695 8.902779
5.804722 -9.101352 8.902779
10.557695 -2.250443 8.902779
9.101352 5.804723 8.902779
2.250443 10.557695 8.902779
-5.804723 9.101352 8.902779
-10.557695 2.250443 8.902779
-9.101352 -5.804722 8.902779
